24 238 944
23 233 920
24 243 956
25 248 976
25 247 969
25 246 961
23 232 904
22 226 882
25 254 985
25 255 987
25 253 979
26 250 962
26 248 955
26 247 948
26 253 967
27 259 988
27 257 980
26 256 973
24 241 914
24 240 907
23 236 889
27 264 991
27 262 983
26 261 976
26 260 968
26 256 952
27 264 981
27 270 1002
27 269 994
27 267 986
25 252 926
24 250 920
24 247 905
28 277 1013
27 275 1005
27 274 997
24 277 1010
24 276 1002
25 282 1024
25 289 1047
25 288 1038
25 286 1030
24 284 1022
22 267 957
22 264 946
22 263 939
30 337 1201
30 335 1190
25 291 1033
24 289 1025
24 288 1017
25 295 1039
26 302 1062
25 300 1054
25 298 1045
23 280 978
22 279 976
24 303 1057
21 276 961
25 310 1077
25 308 1068
24 307 1059
25 303 1045
28 329 1132
25 307 1054
26 315 1078
25 313 1069
25 311 1060
23 293 996
23 291 989
25 314 1066
22 288 974
25 319 1074
25 317 1065
26 322 1078
25 320 1069
26 328 1093
26 326 1084
25 323 1075
24 306 1015
26 329 1090
26 327 1081
23 301 991
22 299 984
26 336 1104
24 337 1107
24 335 1098
24 338 1105
25 347 1131
25 344 1121
24 342 1112
24 340 1102
22 323 1044
25 346 1118
24 344 1108
22 317 1020
21 315 1012
30 409 1310
30 405 1296
24 350 1118
24 351 1120
25 360 1146
25 358 1136
25 355 1126
23 339 1071
23 336 1063
24 361 1139
24 359 1129
21 332 1043
21 330 1035
21 328 1026
24 370 1154
24 367 1144
24 364 1133
25 373 1159
25 371 1148
29 355 1096
27 341 1050
27 339 1042
29 359 1100
26 335 1025
26 333 1017
26 331 1009
25 329 1001
25 327 994
1 145 448
33 39 1018
33 39 1010
20 52 613
17 52 616
19 55 643
19 57 655
21 56 640
21 57 637
21 57 633
22 59 656
21 58 639
22 59 649
19 58 641
21 59 642
21 58 626
20 57 611
19 59 623
19 58 608
24 68 710
22 62 647
21 62 643
21 62 640
22 64 650
22 65 659
21 65 658
21 65 654
21 65 651
20 63 622
21 67 657
20 63 616
22 69 666
22 69 662
22 69 656
21 69 655
22 70 662
22 71 673
22 71 669
22 71 665
21 71 661
21 69 632
22 73 665
20 69 626
33 102 913
33 102 906
22 75 669
22 75 665
22 76 671
23 78 681
23 78 677
23 77 674
22 77 670
21 75 644
23 79 676
21 75 637
21 75 634
22 82 691
22 82 687
22 82 684
22 83 687
22 84 698
22 84 694
22 84 690
22 84 686
21 81 661
22 86 693
20 81 654
20 81 651
20 81 647
25 98 770
22 89 698
22 89 699
23 91 710
23 91 705
22 91 701
22 91 697
21 88 674
23 93 704
21 88 667
21 88 663
21 88 660
23 96 716
23 96 712
23 96 710
23 98 722
24 97 712
24 97 708
24 97 704
23 95 683
24 99 711
24 99 707
22 94 672
22 94 668
22 94 665
24 102 717
24 102 713
24 104 724
24 104 720
24 104 716
25 109 744
24 106 723
24 106 719
25 108 731
25 108 726
24 108 722
27 118 786
25 112 746
25 110 728
25 112 737
25 111 733
25 111 728
26 116 757
26 116 753
23 114 743
23 117 755
23 116 751
23 116 746
23 116 742
29 141 896
26 131 834
23 120 762
23 120 757
23 120 753
24 125 783
24 125 778
23 122 756
24 124 769
23 124 764
23 124 759
23 123 755
23 123 750
24 127 772
24 128 776
24 128 771
23 128 766
25 133 798
25 133 793
24 130 770
24 132 783
24 132 778
24 132 773
24 131 768
23 131 764
42 213 1230
37 192 1106
24 136 785
24 136 780
24 135 775
25 142 808
24 138 784
24 137 779
24 140 792
24 140 787
24 139 782
24 139 777
23 135 755
25 144 802
25 144 800
24 144 795
24 144 790
26 150 823
25 146 798
24 146 793
25 149 807
25 148 802
23 149 803
23 148 798
22 144 775
21 140 750
28 172 914
24 154 816
24 153 811
25 160 846
25 160 841
24 155 815
24 159 830
24 158 824
24 158 819
24 157 813
23 156 808
24 160 823
22 148 762
24 163 835
24 163 830
26 170 863
25 169 857
24 164 830
25 168 846
24 168 844
24 167 838
24 167 833
24 165 824
24 169 839
24 169 837
22 149 728
37 151 715
37 150 711
8 63 306
33 160 753
25 167 794
26 175 827
24 176 836
23 176 831
23 175 825
23 174 820
21 163 765
21 163 761
23 179 834
25 190 882
23 180 833
23 179 828
27 174 795
11 191 892
30 178 810
24 185 847
21 168 765
21 167 761
25 181 816
21 155 699
33 192 858
39 171 751
40 175 764
33 188 830
40 173 755
39 173 750
23 192 851
24 196 867
17 163 721
31 149 643
70 291 1243
41 186 795
24 208 910
24 207 903
24 206 897
25 211 914
24 210 908
22 197 853
22 197 847
22 196 841
25 215 917
26 219 931
26 218 925
25 217 918
25 216 911
25 215 905
25 220 923
26 225 941
26 224 934
26 223 928
25 222 921
27 233 966
26 227 937
26 226 930
26 230 944
26 229 937
26 228 931
25 226 924
25 225 917
26 230 935
26 236 954
26 235 947
26 233 940
23 222 893
30 279 1118
30 273 1091
25 244 975
25 243 967
25 241 960
25 240 953
24 239 946
25 244 965
25 243 958
25 249 978
25 247 970
25 246 963
23 232 905
26 254 990
26 253 982
26 255 989
26 254 981
25 252 974
25 251 966
25 250 959
25 256 979
26 262 1000
26 260 992
26 259 984
23 243 924
23 242 918
23 238 899
27 264 993
27 263 985
27 261 978
27 260 970
27 266 991
27 265 983
28 271 1004
27 269 996
27 268 988
25 252 928
25 251 921
24 247 907
28 278 1015
28 276 1007
27 274 999
27 273 992
27 271 984
28 278 1005
28 284 1027
28 283 1018
28 281 1010
27 279 1002
25 263 941
25 260 930
25 259 923
33 330 1174
28 288 1022
25 292 1035
25 290 1027
24 288 1019
25 295 1041
26 302 1064
26 301 1056
25 299 1047
23 280 980
23 278 973
25 302 1053
22 275 958
26 309 1073
26 308 1064
25 306 1056
25 304 1047
26 310 1065
25 308 1056
26 315 1080
26 313 1071
26 311 1062
24 293 998
23 291 991
26 315 1068
23 288 976
26 320 1076
26 318 1067
26 322 1080
27 330 1105
26 328 1095
26 326 1086
26 324 1077
24 306 1017
26 330 1092
26 328 1083
23 301 993
23 299 985
27 337 1106
26 335 1097
26 332 1087
26 335 1095
27 344 1120
27 341 1110
26 339 1101
26 337 1091
24 320 1035
26 343 1107
25 344 1110
22 317 1022
22 315 1014
30 410 1313
25 353 1130
25 351 1120
25 352 1122
26 361 1148
25 358 1138
25 356 1128
23 339 1074
23 337 1065
25 360 1134
23 333 1048
22 331 1039
22 329 1031
26 371 1160
25 368 1149
27 392 1222
25 365 1135
26 374 1161
25 371 1151
25 369 1141
23 355 1098
23 353 1089
24 375 1154
22 348 1071
22 346 1062
22 342 1047
22 340 1039
22 338 1030
0 120 369
34 39 1020
33 39 1012
33 40 1003
17 52 629
23 51 593
25 54 625
21 55 637
21 57 646
21 56 641
20 57 642
19 57 647
21 59 661
21 58 644
21 59 654
20 58 637
21 60 647
18 53 571
20 57 611
20 58 620
20 57 603
25 68 711
22 62 648
22 62 644
21 62 641
22 64 650
22 65 660
22 65 657
22 65 653
21 63 624
20 63 621
22 67 656
22 67 652
22 69 664
22 69 661
22 69 657
21 69 656
22 70 663
22 70 660
22 71 670
22 71 666
21 69 638
21 69 633
22 73 666
21 69 626
34 102 914
33 102 907
23 75 670
22 75 666
23 76 672
23 78 682
23 78 678
23 78 675
22 75 648
21 75 645
23 79 677
21 75 638
21 75 635
23 82 687
23 82 683
23 81 680
23 82 683
24 84 694
23 84 690
23 84 686
24 86 696
22 81 658
23 86 689
21 81 655
21 81 652
20 81 648
26 98 771
23 89 698
23 89 699
23 91 711
23 91 706
23 91 702
22 88 679
21 88 675
23 93 705
21 88 668
21 88 664
21 88 661
23 96 717
23 96 713
23 96 711
24 98 723
23 98 719
23 98 714
23 98 710
22 95 689
23 99 717
22 95 681
21 95 677
21 95 674
21 94 670
23 103 724
25 105 730
25 104 725
25 104 721
24 104 717
26 109 745
25 106 724
25 108 736
25 108 732
25 108 727
25 108 723
27 118 787
26 112 747
25 110 729
25 112 738
25 111 734
25 111 729
26 116 758
25 113 737
25 113 733
25 115 745
25 115 740
25 115 736
25 115 731
30 132 837
25 118 744
26 119 751
25 119 747
25 119 742
25 125 785
24 125 780
23 122 757
24 124 770
24 124 765
24 124 760
23 124 756
23 123 751
24 127 773
24 128 777
24 128 772
24 128 767
25 134 799
25 133 794
24 130 771
24 132 784
24 132 779
24 132 774
24 131 769
24 131 765
43 213 1233
38 192 1108
24 136 786
24 136 781
26 142 814
25 142 809
24 138 785
24 137 780
25 140 793
24 140 788
24 140 784
24 139 779
22 132 734
25 145 806
25 145 801
25 144 796
24 144 791
26 150 824
25 146 799
25 146 794
25 149 808
25 148 803
25 148 798
25 147 793
24 144 770
23 139 745
29 171 908
25 153 811
25 152 806
26 159 840
24 156 821
24 155 816
25 159 831
24 158 825
24 158 820
24 157 815
24 157 809
24 160 824
22 148 763
25 163 837
25 163 831
26 170 865
26 169 859
25 165 832
25 168 847
25 167 841
25 167 836
24 166 830
24 166 825
25 169 840
25 169 834
24 177 843
24 177 837
23 175 826
23 175 821
21 163 767
21 163 762
26 191 890
24 181 840
24 180 834
36 165 745
36 164 741
27 173 791
27 184 839
24 185 848
24 185 842
21 167 762
23 183 831
19 157 710
26 201 908
28 186 834
20 165 739
39 169 735
4 65 291
28 153 668
70 299 1284
41 183 783
26 209 914
25 208 907
25 207 901
25 206 894
24 200 866
25 209 905
23 197 850
23 196 845
23 195 839
26 215 915
26 220 933
26 219 926
26 218 920
25 217 913
25 216 906
26 220 924
26 225 943
26 224 936
26 223 929
24 211 875
27 234 968
26 227 938
26 226 932
26 230 946
26 229 939
26 228 932
26 227 925
25 226 919
26 231 937
27 236 956
27 235 949
26 234 942
24 220 887
32 277 1108
31 270 1081
27 242 967
27 241 959
27 240 952
26 238 945
26 237 938
27 243 957
26 241 950
26 249 980
26 248 972
25 247 965
23 232 907
26 255 992
26 253 984
26 256 991
26 254 983
26 253 975
25 251 968
25 250 961
26 256 981
26 262 1002
26 261 994
26 259 986
24 244 926
24 243 919
26 267 1005
26 266 997
26 264 989
25 264 987
26 270 1008
27 275 1024
27 274 1016
26 272 1008
26 271 1000
24 254 939
25 251 923
24 248 908
28 278 1017
28 276 1009
28 275 1001
27 273 993
27 272 986
28 278 1007
29 285 1029
28 283 1020
28 282 1012
28 280 1004
26 263 942
25 260 931
25 259 924
34 331 1177
28 288 1024
28 287 1016
28 285 1008
27 283 1000
28 290 1021
29 297 1043
29 295 1035
28 294 1027
26 276 962
23 279 974
26 303 1055
23 276 960
26 310 1076
26 308 1067
26 306 1058
26 304 1049
26 310 1067
26 308 1058
27 316 1082
26 314 1073
26 312 1064
24 294 1000
26 318 1079
26 316 1070
23 289 977
26 321 1078
26 318 1069
26 323 1082
27 331 1107
27 329 1098
26 327 1089
26 325 1079
24 307 1019
27 331 1095
26 328 1085
23 302 995
23 300 987
27 337 1108
27 335 1099
26 333 1090
27 336 1097
27 344 1122
27 342 1113
27 340 1103
25 322 1045
25 320 1037
27 344 1109
24 317 1021
24 315 1013
23 313 1005
32 405 1297
27 350 1119
29 375 1195
27 349 1111
27 357 1136
27 355 1126
25 357 1131
24 340 1076
23 338 1067
25 360 1136
23 333 1050
23 331 1041
22 329 1033
26 372 1162
26 369 1152
28 393 1225
25 366 1138
26 375 1164
26 372 1154
25 369 1143
24 354 1094
24 352 1084
25 373 1149
23 347 1067
23 345 1058
23 343 1049
22 341 1041
22 338 1033
0 121 373
34 39 1022
34 39 1013
21 51 613
17 52 623
20 55 642
19 57 661
19 56 640
19 57 649
20 57 641
22 59 657
20 58 650
20 60 659
21 58 634
22 59 643
20 59 632
19 57 616
20 59 625
19 58 610
24 69 717
21 63 653
21 63 649
22 65 673
22 64 651
23 65 661
22 65 657
22 65 654
21 63 625
21 63 622
22 67 656
20 63 615
23 69 665
22 69 661
22 69 658
22 69 654
22 70 662
22 70 658
23 71 668
23 71 664
21 69 637
21 69 634
23 73 667
21 69 627
34 102 916
21 69 621
23 75 671
23 75 667
23 76 673
23 78 686
23 78 682
23 78 675
22 75 649
22 75 646
23 79 678
21 75 639
21 75 636
24 82 688
23 82 687
23 82 683
23 83 686
23 84 697
23 84 693
23 84 689
23 86 700
22 81 658
24 86 690
22 81 651
22 81 648
21 81 644
27 97 766
24 88 694
24 89 695
24 91 706
24 91 702
24 91 698
23 88 675
23 88 671
24 92 701
21 88 669
21 88 665
21 88 662
24 96 718
23 96 714
23 96 712
24 98 724
24 98 720
23 98 715
22 95 694
22 95 690
23 100 718
22 95 682
22 95 678
22 95 675
21 94 671
24 103 725
24 105 736
24 105 732
24 105 728
24 105 723
25 109 752
24 107 731
24 109 743
24 109 738
24 109 734
24 108 730
27 119 795
25 110 734
25 110 730
25 112 739
25 112 735
25 111 730
26 116 759
25 113 738
25 113 734
26 116 746
25 115 741
25 115 737
25 115 732
29 130 828
26 118 745
26 119 752
26 119 748
26 119 743
27 124 773
27 124 768
26 121 746
26 123 759
26 123 754
26 123 750
26 122 745
25 122 741
26 126 762
26 127 766
26 127 761
26 126 756
25 134 800
25 133 795
24 130 772
25 133 785
24 132 780
24 132 775
24 132 771
24 131 766
43 214 1236
38 192 1110
25 136 787
24 136 782
26 142 815
26 142 810
25 138 786
25 141 800
25 141 795
25 140 790
25 140 785
24 139 780
22 132 735
25 145 807
25 145 802
25 144 797
25 144 792
26 151 826
25 146 801
25 146 796
25 149 810
25 149 804
25 148 799
25 148 794
24 144 771
23 140 746
30 171 909
25 153 812
25 152 807
27 160 842
26 155 816
25 155 811
26 158 825
26 157 820
26 157 814
25 156 809
25 156 804
26 159 818
23 148 758
26 163 831
26 162 825
26 170 866
26 170 860
25 165 833
25 168 848
25 168 843
25 167 837
25 166 832
24 166 826
25 169 841
25 169 836
9 88 437
25 173 838
25 172 833
24 171 827
26 180 864
9 92 441
19 147 697
23 173 812
23 173 807
24 181 841
24 180 836
24 179 830
23 179 825
23 178 820
25 186 855
4 66 306
25 183 831
25 182 826
19 157 711
31 226 1018
22 170 759
28 188 834
32 182 801
34 195 853
31 199 874
28 201 883
42 182 781
43 186 794
42 185 789
42 184 784
42 184 780
24 200 867
26 210 907
23 197 852
23 196 846
23 196 840
26 215 916
27 220 935
26 219 928
26 218 921
26 217 915
25 216 908
26 221 926
27 226 945
27 225 938
26 224 931
24 211 877
28 234 969
27 227 940
26 226 933
27 230 948
27 229 941
26 228 934
26 227 927
26 226 920
26 231 939
27 236 958
27 235 951
27 234 944
25 221 888
33 277 1110
32 271 1084
27 243 968
27 241 961
27 240 954
27 239 947
26 238 940
27 243 959
28 249 979
27 247 972
27 246 964
27 245 957
25 231 900
28 253 983
28 251 976
28 254 982
27 252 975
27 251 968
27 250 960
25 250 963
26 256 983
27 262 1004
26 261 996
26 260 988
24 244 928
24 243 921
27 268 1007
27 266 999
26 265 991
26 263 984
27 269 1005
27 276 1027
27 274 1018
27 273 1010
27 271 1002
24 255 940
24 253 934
24 250 919
27 281 1030
27 279 1022
27 278 1014
27 276 1006
26 275 998
27 281 1019
29 285 1031
29 284 1022
28 282 1014
26 265 951
26 263 944
25 261 933
25 260 926
34 332 1180
29 289 1026
28 287 1018
28 285 1010
31 311 1096
29 291 1023
29 298 1046
29 296 1037
29 294 1029
26 276 964
26 274 957
29 298 1034
26 272 943
30 304 1054
29 303 1045
29 301 1037
29 299 1029
29 305 1046
29 303 1038
30 310 1060
27 314 1076
26 312 1067
24 294 1002
27 318 1082
26 316 1073
23 289 979
27 321 1081
26 319 1072
27 324 1085
27 332 1110
27 330 1100
27 327 1091
27 325 1082
25 307 1021
27 331 1097
27 329 1088
24 302 997
28 340 1120
27 338 1111
27 336 1101
27 334 1092
27 337 1100
28 345 1125
27 343 1115
27 340 1105
25 323 1048
25 321 1039
27 344 1111
24 317 1023
24 315 1015
24 313 1007
33 406 1301
27 351 1121
30 375 1198
27 349 1113
28 358 1139
27 356 1129
27 353 1119
25 337 1066
25 335 1057
27 357 1125
25 331 1040
24 329 1032
24 327 1023
28 368 1150
28 365 1140
30 389 1211
27 362 1126
26 376 1167
26 373 1156
26 370 1146
24 355 1096
24 352 1087
26 374 1151
23 348 1069
23 346 1060
23 343 1051
23 341 1043
22 339 1035
0 121 374
34 39 1024
22 51 612
19 56 652
19 57 662
22 55 628
22 56 629
20 60 672
19 59 655
21 60 656
21 58 639
22 60 644
19 59 641
22 57 605
23 58 614
29 67 696
27 73 760
22 62 649
24 67 687
27 64 651
26 63 634
23 65 662
26 64 640
22 65 655
21 63 626
21 63 622
22 67 657
21 63 616
23 69 666
23 69 662
23 69 659
24 71 680
23 70 663
23 71 673
23 71 669
23 71 665
22 69 638
21 69 634
23 73 668
21 69 628
34 102 917
30 91 816
23 75 672
23 75 668
23 76 674
24 78 684
23 78 680
23 78 676
22 75 650
22 75 647
23 79 679
22 75 640
21 75 636
24 82 689
23 82 688
24 84 706
23 83 687
24 84 698
24 84 691
23 84 690
24 86 701
22 81 659
24 86 690
22 81 654
21 81 651
21 81 647
27 98 770
24 89 698
24 89 699
24 91 710
24 91 706
24 91 699
23 88 676
23 88 672
24 92 702
23 88 665
22 88 661
22 88 658
25 96 714
25 95 710
24 96 708
25 98 719
25 98 715
25 97 711
24 95 690
23 95 686
24 100 719
22 95 683
22 95 679
22 95 675
22 95 672
24 103 726
24 105 737
24 105 733
24 105 729
24 105 724
25 109 753
24 107 732
25 109 744
25 109 739
24 109 735
24 108 731
27 119 796
25 111 741
25 113 750
25 113 746
25 112 741
24 112 737
26 117 767
25 114 745
24 114 740
25 116 753
25 116 748
26 115 738
25 115 733
30 131 829
26 120 758
26 119 753
26 119 749
26 119 744
27 124 774
27 124 769
26 121 748
26 123 760
26 123 755
26 123 751
26 122 746
24 117 710
27 126 763
27 127 767
27 127 762
26 127 757
28 132 788
27 132 784
26 128 761
27 131 774
27 131 769
27 130 764
26 130 760
26 130 755
47 210 1208
39 193 1113
25 136 789
25 136 784
26 142 817
26 142 811
25 138 787
25 141 801
25 141 796
25 140 791
25 140 786
25 139 781
23 132 736
26 145 809
25 145 803
25 144 798
27 151 832
26 151 827
25 147 802
26 150 816
26 149 811
26 149 806
25 148 801
25 148 795
24 144 772
23 140 748
30 171 911
26 153 813
26 153 808
27 160 843
26 155 817
26 155 812
26 158 826
26 158 821
26 157 816
26 156 810
25 152 786
26 159 820
23 148 759
26 163 832
26 162 827
28 169 860
27 169 854
26 164 827
27 167 842
27 167 837
26 166 831
26 165 826
26 165 821
26 168 835
24 157 776
24 156 771
4 62 312
27 184 896
25 174 845
26 177 861
26 177 855
26 176 849
25 175 844
27 173 817
38 160 737
32 165 768
32 164 759
35 181 831
23 172 803
22 171 788
25 182 838
25 186 853
27 183 833
24 185 845
33 175 785
32 174 780
57 284 1262
26 198 880
24 186 824
23 185 819
27 206 908
29 202 885
34 193 837
43 186 796
42 185 791
42 185 786
42 184 781
40 179 759
42 187 789
40 177 747
39 177 743
39 176 738
66 278 1159
65 276 1148
43 191 796
44 195 810
27 219 930
26 218 923
26 217 916
26 216 910
26 221 928
27 226 946
27 225 939
27 224 933
25 211 878
28 234 971
27 228 942
27 232 957
27 231 950
27 230 943
27 229 936
26 227 929
25 221 902
27 231 941
27 237 960
27 236 953
27 234 946
25 221 890
33 278 1113
32 271 1086
28 243 970
27 242 963
27 240 956
27 239 949
27 238 942
27 243 961
28 249 981
28 248 974
28 246 966
27 245 959
25 231 902
28 253 985
28 252 978
28 254 984
28 253 977
28 251 969
27 250 962
26 245 942
28 254 975
28 261 995
28 259 988
28 258 980
26 242 921
25 241 914
27 268 1009
27 266 1001
27 265 993
26 264 986
27 270 1007
28 276 1029
27 275 1020
27 273 1012
27 272 1004
25 255 942
24 252 927
28 282 1035
28 282 1032
27 280 1024
27 278 1016
27 277 1008
27 275 1000
27 282 1021
28 289 1044
28 287 1035
27 285 1027
25 268 962
25 266 955
25 264 944
24 263 941
33 336 1197
28 292 1039
27 290 1030
27 289 1022
30 315 1111
28 294 1036
30 298 1048
29 296 1039
29 295 1031
27 276 966
26 275 959
29 298 1037
26 272 944
30 305 1056
30 303 1048
29 301 1039
29 299 1031
30 305 1048
29 303 1040
30 311 1063
30 309 1054
29 307 1045
27 289 983
30 312 1060
29 310 1051
26 284 961
30 315 1059
29 313 1050
27 324 1087
28 332 1112
28 330 1103
27 328 1093
27 326 1084
25 308 1023
27 332 1099
27 330 1090
24 303 999
28 341 1123
28 339 1113
27 336 1104
27 334 1094
27 337 1102
28 346 1127
28 343 1117
27 341 1108
26 324 1050
25 322 1041
28 345 1114
24 319 1030
24 317 1022
23 315 1014
33 410 1313
27 353 1131
27 355 1133
27 352 1123
27 361 1149
28 356 1131
28 354 1122
25 339 1074
25 337 1065
28 358 1127
25 331 1042
25 329 1034
24 327 1025
28 369 1153
28 366 1143
28 365 1138
27 363 1128
28 372 1154
28 369 1144
28 367 1134
26 351 1085
26 349 1076
28 370 1139
25 345 1058
25 342 1050
25 340 1041
23 342 1045
23 340 1037
36 39 1015
36 39 1001
35 40 998
22 51 613
19 56 650
19 57 662
22 55 628
23 56 630
24 59 654
23 58 638
23 59 647
19 59 649
23 59 641
22 57 611
22 57 610
21 57 605
27 68 713
25 66 691
23 62 646
25 66 683
27 64 652
26 63 635
26 64 645
26 65 643
26 65 640
24 62 612
24 62 609
26 66 642
24 62 603
26 68 651
26 68 645
26 68 642
27 70 662
26 69 645
27 70 655
27 70 651
27 70 648
22 69 639
22 69 635
23 73 669
21 69 629
35 102 919
30 91 818
23 75 673
23 75 669
23 76 674
24 78 685
24 78 681
23 78 677
22 75 651
22 75 647
24 79 680
22 75 641
22 75 637
24 82 690
24 82 686
25 84 704
24 82 686
24 84 696
24 84 692
24 84 688
24 86 699
23 81 660
24 86 691
22 81 653
22 81 652
27 98 777
24 89 703
25 91 719
24 89 700
24 91 711
25 91 704
24 91 700
23 88 677
23 88 673
24 92 703
23 88 666
23 88 662
22 88 661
25 96 717
25 96 711
25 96 709
25 98 720
25 98 716
25 98 712
24 95 691
24 95 687
25 99 715
23 95 679
23 94 675
23 94 672
25 103 721
26 105 733
26 105 729
25 105 724
26 110 759
25 110 754
24 107 733
25 109 745
25 109 741
25 109 736
24 108 732
27 119 797
25 111 742
25 113 752
25 113 747
25 112 743
25 112 738
26 117 768
25 114 746
25 117 758
25 116 754
25 116 749
25 116 745
25 116 740
29 132 838
26 121 765
26 120 760
25 120 756
25 120 751
26 125 782
25 122 759
25 122 754
27 123 761
27 123 756
26 123 752
26 122 747
24 115 701
27 126 764
27 127 768
27 127 763
27 127 759
28 132 790
28 132 785
27 129 762
27 131 775
27 131 770
27 131 765
27 130 761
26 130 756
47 210 1211
42 189 1090
27 135 777
27 135 772
29 141 804
28 140 799
27 137 776
28 140 789
28 139 784
27 139 779
27 138 774
27 138 770
23 132 737
26 146 810
26 145 805
26 145 799
27 151 834
27 151 828
26 147 803
26 150 818
26 149 812
26 149 807
26 148 802
25 148 797
24 140 753
23 140 749
30 171 912
26 153 815
26 153 809
27 160 844
26 156 818
26 155 813
27 158 828
26 158 822
26 157 817
26 157 812
25 152 788
26 159 821
24 148 760
27 163 834
26 162 828
28 169 861
28 169 855
26 164 829
27 168 844
27 167 838
27 166 833
26 166 827
26 165 822
27 169 837
24 157 777
24 156 772
5 62 311
27 172 842
27 174 851
27 173 845
28 177 861
27 176 855
27 176 849
27 175 843
27 174 838
26 180 865
38 160 737
52 206 939
25 167 764
24 167 762
35 173 778
38 164 730
46 191 846
28 189 853
25 192 867
27 201 907
27 200 900
26 200 894
26 199 888
24 186 831
24 186 826
28 213 941
27 206 909
27 205 903
28 209 916
30 205 893
35 196 848
35 195 842
42 184 782
41 179 760
43 187 790
40 177 748
40 177 744
39 176 739
66 279 1162
64 272 1132
43 192 798
44 195 811
44 195 806
43 194 801
43 193 796
43 192 791
43 196 805
44 200 819
44 199 813
44 199 808
25 212 880
28 235 973
27 228 944
28 232 958
27 231 951
27 230 944
27 229 937
27 228 930
26 222 903
28 238 969
28 237 962
28 236 954
27 235 947
25 221 891
33 278 1115
32 272 1088
28 243 972
28 242 965
28 241 958
27 240 950
27 238 943
28 244 963
28 250 983
28 248 975
28 247 968
26 232 910
25 231 903
29 254 987
28 252 980
28 254 986
28 253 979
28 252 971
28 250 964
27 246 944
28 255 977
29 261 997
28 259 989
28 258 982
26 243 922
26 242 916
29 266 1001
28 265 993
28 263 985
28 262 978
29 268 998
29 274 1020
29 273 1012
29 271 1004
27 255 942
26 253 935
26 250 920
28 284 1043
28 282 1034
28 280 1026
28 279 1018
27 277 1010
27 276 1002
28 282 1023
28 289 1046
28 287 1038
28 286 1029
26 268 964
25 267 957
25 264 945
25 264 943
34 337 1200
28 293 1041
28 291 1033
28 289 1024
31 315 1114
28 294 1038
29 302 1062
28 300 1053
28 298 1044
25 281 982
26 278 970
28 301 1050
25 275 956
29 309 1070
29 307 1061
30 302 1041
29 300 1033
30 306 1050
31 313 1074
30 311 1065
30 309 1056
29 309 1053
27 290 985
30 313 1062
30 311 1053
27 285 963
30 316 1061
30 314 1052
30 318 1065
31 326 1089
31 324 1079
30 322 1070
28 304 1011
28 303 1003
30 325 1076
27 299 988
27 297 980
31 334 1099
31 332 1089
28 337 1106
30 363 1188
28 338 1104
28 346 1130
28 344 1120
28 342 1110
26 324 1052
26 322 1043
28 345 1116
25 318 1027
25 316 1019
24 314 1011
34 408 1307
28 352 1126
28 353 1128
28 351 1118
29 360 1144
28 357 1134
27 357 1131
26 340 1076
25 338 1068
27 361 1137
25 334 1050
24 331 1042
24 329 1033
29 369 1155
28 367 1145
28 366 1141
29 375 1167
29 373 1157
28 370 1146
28 367 1136
26 352 1087
26 350 1078
28 371 1142
25 345 1061
25 343 1052
25 341 1043
25 339 1035
22 342 1045
36 39 1017
37 39 1003
36 40 1000
22 51 613
22 52 607
23 55 637
23 55 634
20 57 661
23 56 640
23 57 633
24 59 655
23 58 639
24 59 648
23 58 632
23 59 641
22 57 611
22 57 608
22 57 605
23 69 736
20 63 668
24 62 646
23 62 643
24 65 666
24 64 649
24 65 659
23 65 658
23 65 654
22 63 625
24 67 660
23 67 657
21 63 616
24 69 665
24 69 662
24 68 653
25 71 675
24 70 657
25 71 667
25 71 664
26 71 651
25 68 625
27 72 657
26 72 654
24 68 615
39 100 887
34 89 792
26 74 659
27 74 651
27 75 657
28 77 666
27 77 663
24 78 678
22 75 652
22 75 648
24 79 681
22 75 641
22 75 638
24 82 691
24 82 687
25 84 705
24 83 687
25 84 697
24 84 693
24 84 689
23 81 665
23 81 661
24 86 692
22 81 654
22 81 650
28 98 775
25 89 701
25 91 717
24 89 698
25 91 709
25 91 705
25 91 701
24 88 678
23 88 674
25 92 704
23 88 667
22 88 665
22 88 662
25 96 718
25 96 712
25 96 710
25 98 721
25 98 717
25 98 713
24 95 691
24 95 688
25 99 716
24 95 680
23 95 676
23 94 672
25 103 722
26 105 734
26 105 730
26 105 725
27 109 754
27 109 749
26 106 728
26 109 740
26 108 736
26 108 732
26 108 727
29 118 792
26 110 737
26 112 747
25 113 748
25 112 744
25 112 739
26 117 769
25 114 747
26 117 759
26 117 755
25 116 750
25 116 746
25 116 741
29 132 839
26 121 766
26 120 761
26 120 757
25 120 752
27 125 783
26 122 760
25 122 756
26 124 768
26 124 764
26 124 759
25 123 754
26 127 776
26 127 771
26 128 775
26 128 770
26 128 766
27 133 797
27 133 792
26 130 769
27 132 782
27 131 771
27 131 767
27 130 762
27 130 757
48 210 1214
42 190 1092
28 135 778
27 135 773
29 141 806
29 141 801
27 137 777
28 140 790
28 139 785
28 139 780
27 138 776
27 138 771
25 131 727
28 144 798
28 143 793
28 143 788
29 150 821
29 149 816
28 145 791
29 148 805
28 148 800
28 147 795
26 149 803
26 148 798
24 140 754
24 141 753
30 172 914
26 153 816
26 153 811
28 160 846
26 156 820
26 155 814
27 158 829
27 158 824
26 157 818
26 157 813
25 153 789
27 160 822
27 164 841
27 163 835
27 163 829
28 170 863
28 169 857
27 164 830
27 168 845
27 167 840
27 166 834
27 166 829
26 165 823
27 169 838
25 157 778
24 157 773
29 179 880
28 174 852
27 174 846
28 177 862
28 177 856
27 176 850
27 175 845
27 175 839
27 179 858
27 178 853
25 179 854
29 194 913
27 183 861
27 182 855
27 186 871
27 186 865
25 182 845
27 194 882
27 193 876
27 192 870
27 197 887
27 196 881
28 200 898
27 199 891
27 198 885
25 186 829
25 185 824
29 212 938
29 211 932
28 204 900
28 209 918
28 208 912
28 207 905
28 206 899
27 205 892
26 199 864
28 209 903
26 197 849
25 196 843
29 190 809
58 306 1292
36 204 862
36 203 856
44 196 813
44 195 807
44 194 802
43 193 797
43 193 792
44 197 806
45 200 820
44 200 815
44 199 810
41 189 768
46 207 839
44 202 817
45 205 828
45 204 822
44 204 817
44 203 812
44 202 807
44 206 821
45 210 835
45 209 830
45 208 824
28 235 949
25 222 893
34 279 1118
33 272 1090
28 244 974
28 242 967
28 241 959
28 240 952
27 239 945
28 244 965
29 250 985
28 249 977
28 247 970
26 233 911
26 232 905
29 254 989
29 256 996
29 255 988
29 254 981
28 252 973
28 251 966
27 246 945
28 255 978
29 261 999
29 260 991
29 258 984
26 243 924
26 242 917
29 266 1002
29 265 995
29 263 987
28 262 979
29 268 1000
30 275 1022
29 273 1014
29 272 1006
27 255 943
27 254 936
26 250 921
30 282 1033
30 280 1025
29 278 1017
29 277 1009
29 275 1001
31 290 1054
29 280 1015
30 287 1037
30 285 1029
29 283 1020
26 268 966
26 267 959
25 264 947
25 264 945
34 338 1203
29 293 1043
28 291 1035
28 290 1026
29 297 1049
28 295 1040
29 302 1064
29 300 1055
29 298 1046
26 280 979
26 278 972
29 302 1052
25 275 957
29 309 1072
29 307 1064
29 305 1055
28 303 1046
29 309 1064
29 319 1095
29 317 1085
28 315 1076
28 313 1067
27 293 998
29 317 1076
29 315 1067
27 285 965
31 318 1072
30 316 1063
30 314 1054
31 319 1067
31 327 1091
31 324 1082
31 322 1073
29 305 1013
28 303 1005
31 326 1078
28 300 989
27 298 982
32 335 1101
31 333 1092
31 331 1082
34 355 1161
31 331 1081
32 339 1105
31 337 1096
31 335 1086
29 318 1031
29 316 1022
31 339 1092
25 319 1029
25 317 1021
25 315 1013
34 409 1310
29 353 1129
29 354 1131
29 363 1157
29 360 1147
29 358 1136
28 355 1127
27 339 1072
26 337 1064
28 359 1132
26 332 1046
25 330 1038
25 328 1030
29 370 1158
29 367 1148
29 367 1143
29 376 1170
28 376 1167
28 373 1156
28 370 1146
26 355 1096
28 377 1162
28 374 1152
25 348 1069
26 344 1054
25 341 1046
25 339 1037
24 339 1035
37 39 1019
36 39 1010
36 40 1002
22 51 616
22 52 606
24 55 633
21 56 647
24 56 642
24 56 636
24 56 633
23 57 634
24 58 643
23 58 639
24 59 649
23 58 633
24 59 642
22 57 614
22 57 609
22 57 606
29 73 762
24 62 651
24 62 647
24 62 644
24 64 653
24 64 650
24 65 660
24 65 656
24 65 653
23 63 624
24 67 659
24 67 655
22 63 614
24 68 664
24 69 662
24 69 659
25 71 681
24 70 663
24 71 673
24 71 669
24 71 666
23 69 638
24 73 672
24 73 668
23 68 622
38 101 905
34 90 796
27 74 658
27 75 663
27 75 660
27 77 670
27 77 666
27 77 660
26 74 635
28 78 666
24 79 682
26 74 625
25 74 622
28 80 672
28 80 669
30 85 701
28 81 668
25 84 698
25 84 694
24 84 690
23 82 665
23 81 662
25 86 693
23 81 655
23 81 651
28 98 776
25 89 702
25 89 703
25 89 699
25 91 710
25 91 706
25 91 702
24 88 679
24 88 675
25 93 705
23 88 668
23 88 664
23 88 660
25 96 717
25 96 712
25 96 711
26 98 722
26 98 718
25 98 714
24 95 692
24 95 688
25 99 717
24 95 681
24 95 677
23 94 673
26 103 723
26 105 735
26 105 731
26 105 726
27 109 755
27 109 750
26 107 729
26 109 744
26 109 737
26 108 733
26 108 728
29 118 793
26 111 738
27 112 748
27 112 743
26 112 739
28 117 769
27 117 764
26 114 742
27 116 755
27 116 750
27 116 745
26 115 741
26 115 737
31 131 833
26 121 767
26 120 763
26 120 758
26 120 753
27 125 784
26 122 761
26 122 757
26 124 769
26 124 765
26 124 760
26 123 755
27 128 777
26 127 772
27 128 776
26 128 772
26 128 767
28 134 799
26 130 775
26 130 770
27 132 784
27 132 779
26 132 774
26 131 769
26 131 764
47 213 1232
41 192 1107
27 136 786
27 136 781
28 142 814
28 142 808
28 137 778
28 140 792
28 139 787
28 139 782
28 139 777
27 138 772
25 131 728
29 144 799
28 144 794
28 143 789
30 150 822
29 149 817
28 145 792
29 148 806
29 148 801
28 147 796
28 147 791
28 146 786
26 139 744
26 139 742
33 169 899
29 152 804
28 151 798
30 158 833
29 154 807
27 155 816
27 159 830
27 158 825
27 158 820
26 157 814
27 160 829
27 160 823
28 164 842
27 163 836
27 163 831
28 170 864
27 165 837
27 164 831
28 168 847
27 167 841
27 167 835
27 166 830
27 165 824
27 169 839
25 157 779
28 173 851
29 180 882
27 175 857
28 174 848
28 178 867
28 177 858
28 176 852
28 175 846
27 175 840
27 179 860
27 178 854
27 178 848
24 166 790
30 196 929
28 185 874
28 184 868
27 183 862
27 183 857
28 187 873
28 186 867
27 185 861
28 189 877
28 188 871
25 176 813
25 176 808
24 169 775
31 206 941
29 194 882
29 193 876
28 192 870
29 196 886
28 197 888
27 196 882
26 190 854
28 199 893
25 187 836
25 186 830
25 186 825
30 212 940
29 211 933
28 205 902
29 209 920
28 208 913
28 207 907
28 206 900
28 206 894
26 199 865
28 209 905
26 197 850
26 196 844
25 195 839
29 216 921
28 215 914
29 220 932
29 218 926
28 217 919
28 216 912
28 215 906
30 218 915
37 213 882
37 212 876
37 211 870
42 189 770
46 207 840
45 202 818
45 206 829
45 205 824
45 204 818
44 203 813
44 202 808
45 206 822
46 210 837
45 210 831
45 209 826
45 208 820
42 198 778
52 237 930
45 212 831
46 215 839
45 214 833
45 213 828
45 212 822
44 211 817
28 245 966
29 250 987
29 249 979
29 248 972
26 233 913
26 232 907
29 254 991
29 257 998
29 255 990
29 254 982
29 253 975
28 251 968
29 257 988
29 256 980
29 262 1001
29 260 993
29 259 986
27 244 925
26 239 907
30 267 1004
29 267 1002
28 265 994
29 262 981
29 269 1002
30 275 1024
30 274 1016
30 272 1008
27 256 945
27 254 938
26 251 923
30 282 1036
30 280 1027
30 279 1019
30 277 1011
29 276 1003
29 273 991
30 280 1017
31 287 1039
30 286 1031
30 284 1022
27 267 958
27 265 951
27 262 940
27 262 937
36 334 1191
30 291 1034
30 289 1026
30 287 1018
30 294 1040
30 293 1031
30 303 1066
29 301 1057
29 299 1049
26 280 981
29 304 1063
29 303 1054
26 276 959
30 310 1075
29 308 1066
29 306 1057
29 304 1048
29 310 1066
30 318 1091
30 316 1081
29 314 1072
29 312 1064
27 293 999
30 317 1078
29 315 1070
26 288 977
30 322 1087
30 320 1077
32 346 1163
30 323 1081
30 331 1106
30 328 1097
30 326 1087
29 305 1015
29 304 1007
31 327 1081
28 300 991
28 298 984
32 336 1103
32 333 1094
31 331 1085
31 334 1092
31 332 1083
32 340 1107
32 338 1098
31 336 1089
29 319 1033
29 317 1024
31 339 1094
28 313 1008
28 311 1001
28 309 993
38 399 1276
32 345 1104
32 347 1105
32 355 1130
32 353 1120
32 350 1111
29 356 1129
27 339 1075
29 362 1145
29 360 1135
26 333 1048
26 331 1040
25 329 1032
30 371 1161
29 368 1150
29 368 1146
30 377 1172
29 374 1162
29 371 1152
29 369 1141
27 353 1092
29 375 1157
29 373 1147
26 346 1065
26 344 1056
26 342 1048
25 340 1039
24 340 1037
36 39 1032
37 39 1012
23 51 613
23 52 607
24 55 636
24 55 633
24 56 642
25 59 666
24 56 636
24 57 630
25 58 639
24 58 636
25 59 648
24 58 631
25 59 639
23 57 611
23 57 606
23 57 603
28 68 710
25 62 647
25 65 675
24 62 645
24 64 654
24 64 651
25 65 660
24 65 657
24 65 653
23 63 625
24 67 660
24 67 656
25 68 668
25 69 665
25 69 661
24 69 657
25 70 665
25 70 661
25 71 671
25 71 668
25 71 664
23 69 637
25 73 670
25 73 667
37 102 922
37 102 915
25 75 674
25 75 670
25 76 678
25 76 675
25 78 685
25 78 679
25 78 675
24 75 649
25 79 682
26 79 673
24 75 637
25 74 625
28 81 676
28 81 672
28 81 675
28 81 671
28 83 682
28 83 678
28 83 674
27 80 648
29 84 678
28 84 674
26 80 638
26 80 635
32 96 752
29 87 683
29 88 684
29 88 680
26 91 711
25 91 707
25 91 703
24 88 680
24 88 676
25 93 706
23 88 668
23 88 665
23 88 661
26 96 718
27 101 749
25 96 712
26 98 723
26 98 719
26 98 715
25 95 693
24 95 689
26 99 718
24 95 682
24 95 678
24 95 674
26 103 724
26 105 736
26 105 732
26 105 727
27 110 756
27 109 751
26 107 730
26 109 745
26 109 741
26 108 734
26 108 729
29 119 795
27 111 740
27 113 749
27 112 744
27 112 740
28 117 770
27 117 768
26 114 746
27 116 756
27 116 751
27 116 746
27 116 742
26 115 738
31 131 834
28 120 762
27 120 758
27 120 753
28 125 784
28 125 779
27 122 756
28 124 769
28 124 765
27 123 760
27 123 755
27 123 751
27 128 778
27 127 773
27 128 778
27 128 773
26 128 768
28 134 800
27 130 776
27 133 790
27 133 785
27 132 780
27 132 775
26 131 770
25 128 748
47 213 1235
36 169 976
27 136 787
27 136 782
28 142 815
28 142 810
27 138 786
28 141 799
27 140 794
27 140 789
27 140 784
27 139 779
25 132 735
28 145 807
28 145 802
27 144 797
30 150 824
30 149 818
29 145 794
29 148 808
29 148 802
29 148 797
28 147 792
28 147 787
26 139 745
26 139 743
33 169 900
29 152 805
29 151 800
30 158 834
29 154 809
29 154 803
30 157 818
29 156 812
29 156 807
29 155 802
29 158 816
27 147 756
30 162 829
30 161 823
29 161 818
29 170 866
28 165 838
27 165 833
28 168 848
28 168 842
28 167 837
27 166 831
26 162 806
28 169 841
25 157 781
29 180 883
28 175 855
28 174 849
29 178 865
28 177 859
28 176 853
28 176 847
28 175 842
28 179 857
26 167 798
25 167 796
28 184 877
28 184 871
28 185 876
28 184 870
29 188 886
28 188 880
28 187 874
28 186 868
28 185 862
28 189 879
28 189 872
26 176 815
25 176 809
33 219 1001
30 201 918
29 195 887
29 193 877
30 197 894
29 196 888
29 196 882
29 195 876
29 199 892
29 198 886
27 186 830
27 185 825
26 185 819
31 211 933
31 210 926
29 203 895
30 208 913
29 209 915
28 208 908
28 207 902
28 206 895
29 210 913
26 198 857
26 197 851
26 196 846
26 195 840
29 216 923
29 215 916
29 220 934
29 219 927
29 218 921
29 217 914
27 210 884
29 221 926
30 226 944
29 224 937
29 223 930
27 211 876
31 234 969
29 227 940
30 231 954
30 230 947
29 229 940
29 228 933
30 225 918
37 219 885
38 224 902
38 223 895
45 209 827
45 208 822
42 198 779
52 237 932
46 212 832
46 215 840
46 214 835
45 213 829
45 212 824
44 208 806
46 215 833
46 220 848
46 219 842
46 218 837
43 207 793
43 206 788
47 223 851
47 225 856
46 224 850
46 223 844
46 222 839
29 252 969
29 258 990
30 264 1011
30 262 1003
30 261 995
29 259 988
27 244 927
26 239 908
30 267 1006
30 266 999
29 264 991
29 263 983
30 269 1004
31 276 1026
30 274 1018
30 272 1010
28 256 947
27 255 940
27 251 925
31 282 1038
31 281 1029
30 279 1021
30 278 1013
30 276 1005
30 283 1027
30 281 1019
31 288 1041
31 286 1033
30 284 1024
28 267 960
28 266 953
27 263 941
37 338 1205
36 335 1194
31 291 1036
30 290 1028
30 288 1020
31 295 1042
32 302 1065
31 300 1056
31 298 1048
31 297 1039
28 278 973
31 302 1054
31 300 1045
27 274 952
31 307 1065
31 305 1056
29 306 1059
29 304 1051
30 310 1069
31 318 1093
30 316 1084
30 314 1075
28 295 1009
27 294 1001
30 318 1081
30 316 1072
26 289 979
30 323 1089
30 321 1080
33 347 1165
30 323 1084
31 331 1109
30 329 1099
30 327 1090
28 309 1028
28 307 1020
30 331 1096
27 303 1004
27 302 996
31 340 1119
31 338 1109
30 337 1107
30 340 1114
30 336 1098
31 344 1123
31 342 1114
32 336 1091
30 319 1035
32 342 1106
32 340 1097
29 314 1010
28 312 1002
39 403 1292
38 400 1279
32 346 1106
32 347 1108
33 356 1133
33 353 1123
32 351 1113
32 349 1104
30 333 1052
32 355 1119
32 352 1109
29 327 1027
29 325 1019
28 323 1011
33 363 1133
32 360 1124
32 360 1120
30 377 1175
30 375 1165
29 372 1154
29 369 1144
28 354 1094
30 376 1160
29 373 1149
27 347 1067
26 345 1059
26 343 1050
26 341 1041
25 338 1033
39 39 1012
38 39 1003
23 51 611
23 52 607
24 55 637
24 55 634
24 55 630
24 56 640
24 57 636
24 57 631
25 58 640
25 58 637
25 59 648
24 58 630
25 59 639
23 57 612
23 57 609
23 57 605
28 68 711
25 62 648
26 65 671
25 62 641
25 64 651
25 64 647
26 65 657
25 65 653
25 65 650
24 63 621
26 67 656
25 67 652
28 73 705
26 68 661
26 68 657
25 69 658
25 70 666
25 70 662
25 71 672
25 71 669
25 71 665
23 69 637
25 73 671
25 73 668
38 102 924
37 102 917
25 75 675
25 75 671
25 76 677
25 76 673
26 78 684
26 78 680
25 78 676
24 75 650
26 79 682
25 79 679
24 75 639
26 82 693
25 82 691
25 82 687
25 83 691
26 82 684
26 84 695
26 84 691
26 84 687
25 81 662
27 85 689
29 84 675
27 80 639
26 80 637
32 96 756
29 87 686
29 88 687
28 88 683
29 90 694
29 89 688
29 89 684
28 87 662
28 87 658
29 91 686
27 87 651
27 86 647
27 86 644
26 96 719
26 96 717
26 96 713
26 98 724
26 98 720
26 98 716
25 95 694
25 95 690
26 100 719
24 95 683
24 95 679
24 95 675
26 103 725
27 105 737
27 105 733
26 105 728
28 110 757
27 109 753
26 107 731
27 109 743
27 109 739
27 109 735
26 108 730
29 119 796
27 111 741
27 113 750
27 112 746
27 112 741
28 117 771
27 117 769
26 114 747
28 116 757
27 116 752
27 116 748
27 116 743
27 115 739
31 131 836
28 120 764
28 120 759
27 120 754
29 125 785
29 125 780
27 122 758
28 124 770
28 124 766
28 124 761
27 123 756
27 123 752
28 127 773
28 128 777
28 128 773
28 128 768
28 127 763
29 133 795
28 130 771
29 132 785
28 132 780
28 132 775
28 131 770
28 131 765
44 200 1164
48 214 1238
36 169 978
27 136 788
27 136 783
29 142 816
28 138 792
27 138 787
28 141 801
28 141 796
27 140 790
27 140 785
27 139 781
25 132 736
28 145 808
28 145 803
28 144 798
29 151 832
29 151 827
28 146 802
28 150 816
28 149 810
28 149 805
28 148 800
28 148 795
26 140 752
25 140 750
34 170 902
29 152 806
31 159 841
31 159 835
29 154 810
30 157 824
29 157 822
29 157 817
29 156 812
29 155 803
30 159 818
27 147 757
30 162 830
30 162 825
30 161 819
31 168 852
30 163 825
30 163 820
30 166 835
30 165 829
30 165 824
30 164 818
30 168 833
30 167 828
27 156 769
31 171 839
32 178 869
31 172 841
28 174 850
29 178 866
29 177 860
28 177 855
28 176 849
28 175 843
29 179 859
26 167 799
26 166 794
29 184 874
30 190 903
30 190 896
29 184 867
30 188 884
29 187 878
29 186 872
29 186 866
28 186 864
29 190 880
28 189 874
26 177 816
26 176 811
34 219 1003
30 201 919
29 195 889
29 194 883
30 198 896
30 197 889
29 196 883
29 195 877
30 199 894
29 198 888
27 186 831
27 185 826
27 185 821
31 211 935
31 210 928
30 204 897
31 208 914
30 207 908
30 206 901
30 205 895
29 205 889
30 209 906
28 197 851
28 196 845
27 195 840
29 216 924
29 215 918
30 220 936
29 219 929
29 218 922
29 217 916
28 210 886
29 221 927
30 226 946
30 225 939
29 224 932
27 211 878
31 234 971
30 228 941
30 232 956
30 231 949
30 230 942
29 228 935
29 227 928
30 232 947
31 238 967
30 237 959
30 235 952
30 234 945
28 221 889
36 273 1094
30 239 959
34 237 942
34 235 935
38 227 893
45 212 825
44 208 807
46 216 834
47 220 849
46 219 844
46 218 838
43 207 794
43 206 789
47 223 852
47 225 857
47 224 851
46 223 846
46 222 840
46 221 835
47 226 849
48 230 865
47 229 859
47 228 853
46 227 848
44 216 803
43 212 789
30 268 1008
30 266 1000
30 265 993
29 263 985
30 270 1006
31 276 1028
31 274 1020
30 273 1012
28 256 949
28 255 942
27 251 926
31 283 1040
31 281 1031
31 280 1023
30 278 1015
30 276 1007
31 283 1029
30 281 1021
31 288 1043
31 287 1035
31 285 1027
28 267 962
28 266 955
27 263 943
37 338 1208
37 336 1196
31 292 1038
31 290 1030
30 288 1022
31 295 1044
32 303 1067
32 301 1059
31 299 1050
31 297 1041
28 279 975
31 303 1056
31 301 1047
32 310 1076
32 308 1067
31 306 1058
31 304 1050
34 330 1137
31 308 1059
32 315 1083
32 313 1074
32 311 1065
29 293 1001
29 292 993
32 315 1071
28 288 978
31 323 1091
30 321 1082
31 326 1095
30 324 1086
31 332 1111
31 330 1101
31 328 1092
28 309 1030
28 308 1022
31 331 1098
27 304 1006
27 302 998
31 340 1122
31 338 1112
31 336 1102
31 339 1110
31 337 1101
31 345 1126
31 343 1116
31 340 1107
29 323 1049
31 347 1122
30 346 1119
27 319 1029
27 317 1021
37 412 1324
36 409 1311
31 351 1122
31 352 1124
33 357 1135
33 354 1125
33 352 1116
32 349 1106
30 333 1054
33 355 1121
32 353 1112
29 327 1029
29 325 1021
29 323 1013
33 364 1136
33 361 1126
32 360 1122
33 369 1147
33 367 1137
33 364 1127
32 362 1117
31 347 1070
33 368 1132
32 365 1122
30 340 1044
29 338 1036
26 343 1052
26 341 1044
8 161 493
39 39 1014
39 39 1005
24 51 612
24 55 635
25 56 638
24 57 634
25 58 641
25 58 638
25 59 647
25 59 643
25 59 640
23 57 614
23 57 609
23 57 604
29 68 712
25 62 649
27 65 672
25 62 644
25 64 654
25 64 650
25 64 647
25 65 656
25 65 653
24 63 624
25 67 659
23 63 618
28 73 709
26 68 664
28 73 698
26 68 654
26 70 662
26 70 658
26 71 668
26 71 665
26 71 661
25 69 634
26 73 667
26 73 664
39 102 916
38 102 918
26 75 676
25 75 672
26 76 678
25 76 674
26 78 684
26 78 681
26 78 677
24 75 651
26 79 683
26 79 680
24 75 640
26 82 694
26 82 690
26 82 686
26 82 689
26 82 685
26 84 696
26 84 692
26 84 688
25 81 663
26 86 695
26 86 691
24 81 653
24 81 651
30 98 776
26 89 702
26 89 703
26 89 699
26 91 710
27 91 704
27 91 700
25 88 676
26 88 668
29 91 687
27 87 654
27 87 651
30 95 705
30 94 699
30 94 697
30 94 693
30 96 704
30 96 700
30 96 696
29 94 675
28 93 672
30 98 699
28 93 664
28 93 661
28 93 657
26 103 726
27 105 738
27 105 734
27 105 729
28 110 758
28 109 754
27 107 732
27 109 745
27 109 740
27 109 736
27 108 731
30 119 797
27 111 742
28 113 751
27 113 747
27 112 742
28 117 772
28 117 767
27 114 745
28 117 758
28 116 753
27 116 749
27 116 744
34 141 899
31 132 837
28 120 765
28 120 760
28 120 755
29 125 786
29 125 781
28 122 759
28 124 772
28 124 767
28 124 762
28 123 757
27 123 753
28 127 774
29 128 779
28 128 774
28 128 769
30 134 801
29 133 796
28 130 772
29 132 786
29 132 781
28 132 776
28 131 771
28 131 766
46 199 1153
44 192 1111
29 136 788
29 136 783
28 135 778
30 142 811
29 138 787
29 137 782
28 141 802
28 141 797
28 140 792
27 140 787
26 136 764
25 132 737
28 145 809
28 145 804
28 145 799
30 151 833
29 151 828
28 147 803
29 150 817
29 149 812
28 149 807
28 148 801
28 148 796
26 140 753
33 172 918
29 154 819
29 153 814
30 160 850
30 160 844
29 155 818
29 159 836
29 159 831
28 158 825
28 158 820
28 157 811
29 160 826
26 148 765
31 162 832
30 162 826
30 161 821
32 168 853
30 163 827
30 163 821
31 166 836
30 166 831
30 165 825
30 164 820
31 168 835
30 167 829
28 156 770
31 171 840
32 178 870
32 177 864
31 172 837
31 176 853
31 175 847
31 174 841
31 174 836
30 173 830
31 177 845
28 165 788
26 167 796
29 184 876
31 191 904
30 190 898
29 184 869
30 188 885
30 187 879
29 187 873
29 186 867
29 185 861
29 189 878
27 177 819
27 176 814
26 176 808
35 218 1000
31 200 917
30 194 886
29 194 880
30 198 897
30 197 891
30 196 885
29 195 879
30 200 896
30 199 889
27 186 833
27 186 827
27 185 822
32 212 936
31 211 929
30 204 898
31 209 916
31 208 909
30 207 903
30 206 897
30 205 890
30 209 908
28 197 852
28 196 847
28 195 841
31 215 917
30 214 911
31 219 929
31 218 922
31 217 915
30 216 909
31 220 927
31 219 920
32 224 939
30 225 941
30 224 934
32 236 980
31 235 973
30 228 943
31 232 958
30 231 951
30 230 944
30 229 937
30 228 930
30 233 949
31 238 968
31 237 961
30 236 954
28 222 897
28 221 891
36 273 1097
31 244 979
31 243 972
31 242 964
30 241 957
30 239 950
31 245 970
31 244 962
31 249 982
31 248 975
31 247 967
28 232 909
28 227 887
32 253 987
35 249 964
39 240 920
39 238 913
39 237 907
46 222 836
47 226 851
48 231 866
48 230 861
47 229 855
44 217 809
44 216 804
43 213 790
48 235 868
48 234 862
47 233 857
47 232 851
48 236 866
47 235 860
48 240 876
48 239 870
48 238 864
45 226 818
28 255 943
27 252 928
32 283 1042
31 282 1033
31 280 1025
31 278 1017
30 277 1009
31 284 1031
32 291 1054
32 289 1045
31 287 1037
31 285 1029
28 268 964
28 266 956
28 264 945
38 339 1210
37 337 1199
31 292 1040
31 291 1032
31 289 1024
31 296 1046
32 303 1070
31 303 1067
31 301 1058
31 299 1049
28 280 982
31 305 1064
31 301 1049
33 310 1078
32 308 1069
32 306 1061
31 304 1052
35 331 1140
32 308 1061
33 316 1085
32 314 1076
32 312 1067
30 294 1003
29 292 995
32 316 1073
29 289 980
32 321 1081
32 319 1072
32 323 1085
32 321 1076
33 329 1100
33 327 1091
32 325 1082
30 307 1021
33 331 1097
31 332 1100
28 304 1008
27 303 1000
32 341 1124
31 339 1114
31 337 1105
31 340 1113
32 348 1138
32 346 1128
31 343 1119
31 341 1109
29 324 1051
32 347 1125
31 345 1115
28 318 1026
28 316 1018
38 410 1318
32 354 1134
31 351 1125
32 353 1126
32 361 1152
31 361 1150
31 358 1139
29 342 1084
29 339 1075
31 362 1145
31 360 1135
28 333 1049
27 331 1040
28 327 1026
33 364 1138
33 362 1129
33 361 1124
34 370 1150
33 367 1140
33 365 1130
31 350 1081
31 347 1072
33 368 1135
33 366 1125
30 341 1046
30 339 1038
29 337 1030
26 342 1046
3 117 360
39 39 1016
39 39 1007
24 51 613
24 52 607
25 55 633
24 55 634
25 56 630
25 58 642
25 58 638
26 59 648
25 59 644
25 59 641
24 57 613
24 57 608
23 57 605
29 68 713
26 62 650
27 65 673
25 62 645
25 64 654
25 64 651
26 65 661
25 65 657
26 65 651
24 63 625
26 67 660
23 63 618
26 68 668
26 68 665
26 69 661
25 69 658
26 70 665
26 70 662
26 71 672
26 71 668
26 71 664
24 69 637
26 73 671
26 73 667
39 102 918
39 102 911
27 75 672
26 75 668
27 76 674
27 76 670
27 77 680
27 77 677
27 77 673
25 75 647
27 79 679
27 79 676
25 75 637
27 82 694
26 82 691
26 82 687
26 83 690
26 82 686
27 84 697
26 84 693
26 84 689
25 81 664
27 86 696
26 86 692
24 81 653
24 81 650
30 98 774
27 89 701
27 89 702
27 89 698
27 91 709
27 91 705
27 91 701
26 88 677
27 92 708
27 92 704
25 88 669
24 88 665
27 96 722
27 96 715
27 96 714
27 96 710
30 96 705
30 96 701
30 96 697
29 94 676
30 98 704
30 98 700
28 93 665
28 93 662
28 93 658
53 160 1114
30 101 706
31 103 717
31 103 713
31 103 709
32 107 736
32 107 732
31 105 712
31 107 723
31 107 719
27 109 737
27 109 732
30 119 798
27 111 743
28 113 752
28 113 748
27 112 743
29 117 773
29 117 768
27 114 746
28 117 759
28 116 754
28 116 750
27 116 745
35 141 901
32 132 838
28 121 766
28 120 761
28 120 756
29 125 787
29 125 782
28 122 760
29 124 773
28 124 768
28 124 763
28 124 759
28 123 754
29 127 776
29 128 780
29 128 775
28 128 770
30 134 802
30 133 797
29 130 774
29 133 787
29 132 782
29 132 777
28 131 772
28 131 767
51 214 1240
45 192 1114
29 136 789
29 136 784
29 135 779
30 142 812
29 138 788
29 138 783
30 140 796
29 140 791
29 140 786
29 139 781
28 136 759
30 145 806
30 145 804
30 144 799
29 144 794
31 150 828
31 150 822
28 147 804
29 150 818
29 149 813
29 149 808
28 148 803
28 148 797
26 140 754
34 172 920
29 154 821
29 153 815
30 161 851
30 160 845
29 156 819
30 159 834
29 158 829
29 158 823
29 157 818
29 157 813
29 160 827
26 148 766
30 164 840
30 163 835
31 170 868
31 170 862
30 165 835
30 168 850
30 168 845
30 167 839
31 165 826
30 165 821
31 168 836
31 168 830
28 156 772
31 171 841
33 178 872
31 173 844
31 172 838
32 176 854
31 175 848
31 175 843
31 174 837
30 169 811
31 177 847
29 165 789
28 165 784
32 182 862
33 188 889
33 187 883
32 182 855
32 186 871
32 185 865
32 184 859
31 183 853
31 183 848
32 187 863
27 177 820
27 176 815
27 176 810
35 219 1002
31 201 918
30 195 888
30 194 882
31 198 899
30 197 893
30 196 886
30 196 880
30 200 897
30 199 891
28 187 834
27 186 829
31 206 915
32 212 938
32 211 931
30 204 900
31 209 918
31 208 911
31 207 905
30 206 898
30 205 892
31 210 909
28 197 854
28 196 848
28 196 842
31 215 919
32 220 937
32 219 930
31 218 924
31 217 917
31 216 910
31 221 928
31 220 922
32 225 940
32 224 933
31 223 927
33 234 972
33 233 965
32 226 936
32 231 950
32 229 943
32 228 936
31 227 930
31 226 923
32 231 941
31 239 970
31 237 963
31 236 956
28 223 899
28 221 893
37 274 1099
32 245 981
31 243 973
31 242 966
31 241 959
31 240 952
31 245 971
31 244 964
32 250 984
31 248 977
31 247 969
29 233 911
28 227 889
32 254 989
32 256 995
32 255 988
31 253 980
31 252 973
31 251 965
32 256 985
33 263 1006
32 261 999
33 257 981
33 238 904
33 237 898
36 226 849
41 252 940
48 234 864
47 233 858
47 232 852
48 237 868
48 236 862
49 241 878
48 239 872
48 238 866
45 226 820
45 225 814
44 222 803
49 246 885
49 245 879
48 243 873
48 242 867
47 241 862
48 246 877
49 251 893
32 289 1047
32 288 1039
31 286 1031
29 268 965
28 266 954
28 264 947
38 340 1213
32 295 1051
